-109.65,258.31,-64.79
-105.12,260.19,-64.79
-100.56,261.98,-64.79
-96.31,264.61,-65.01
-91.36,265.33,-64.79
-86.72,266.88,-64.79
-82.33,269.29,-65.01
-77.62,270.68,-65.01
-72.63,271.06,-64.79
-67.65,271.34,-64.56
-62.91,272.48,-64.56
-58.34,274.49,-64.79
-53.73,276.42,-65.01
-48.73,276.36,-64.79
-43.9,277.16,-64.79
-39.05,277.89,-64.79
-34.2,278.53,-64.79
-29.23,278.11,-64.56
-24.37,278.58,-64.56
-19.57,279.94,-64.79
-14.64,279.26,-64.56
-9.79,280.45,-64.79
-4.88,279.6,-64.56
0.0,279.64,-64.56
4.91,281.55,-65.01
9.83,281.42,-65.01
14.74,281.21,-65.01
19.64,280.91,-65.01
24.63,281.49,-65.24
29.64,281.99,-65.46
34.91,284.33,-66.14
39.87,283.68,-66.14
44.81,282.94,-66.14
49.57,281.15,-65.91
54.66,281.2,-66.14
59.56,280.2,-66.14
64.66,280.07,-66.36
69.54,278.9,-66.36
74.65,278.59,-66.59
79.77,278.18,-66.81
85.18,278.61,-67.26
90.33,278.0,-67.49
95.48,277.31,-67.71
100.64,276.51,-67.94
105.8,275.62,-68.16
110.6,273.74,-68.16
115.74,272.66,-68.39
121.67,273.27,-69.06
126.83,271.99,-69.28
131.98,270.61,-69.51
136.69,268.26,-69.51
142.26,267.56,-69.96
147.38,265.89,-70.18
152.49,264.12,-70.41
158.08,263.09,-70.86
162.65,260.29,-70.86
168.76,259.86,-71.53
174.36,258.49,-71.98
179.4,256.21,-72.21
184.42,253.83,-72.43
188.82,250.57,-72.43
194.96,249.54,-73.11
200.51,247.61,-73.56
204.8,244.08,-73.56
209.67,241.2,-73.78
215.15,238.95,-74.23
219.29,235.16,-74.23
226.75,234.8,-75.36
231.5,231.5,-75.58
235.5,227.42,-75.58
237.3,221.28,-74.91
238.95,215.15,-74.23
239.73,208.39,-73.33
244.08,204.8,-73.56
251.4,203.58,-74.68
257.99,201.56,-75.58
257.57,194.1,-74.46
253.04,183.84,-72.21
254.61,178.28,-71.76
264.95,178.71,-73.78
268.03,174.06,-73.78
271.03,169.36,-73.78
270.6,162.6,-72.88
270.03,155.9,-71.98
275.26,152.58,-72.66
281.32,149.58,-73.56
293.44,149.52,-76.03
303.89,148.22,-78.06
308.19,143.71,-78.51
309.77,137.92,-78.28
309.43,131.35,-77.61
310.78,125.56,-77.38
301.1,115.58,-74.46
293.91,106.97,-72.21
293.89,101.19,-71.76
294.68,95.75,-71.53
296.31,90.59,-71.53
293.16,84.06,-70.41
300.23,80.45,-71.76
301.59,75.2,-71.76
308.55,71.24,-73.11
307.84,65.43,-72.66
306.07,59.49,-71.98
243.73,42.98,-57.14
140.51,22.25,-32.84
135.08,18.98,-31.49
90.91,11.16,-21.15
62.99,6.62,-14.62
56.3,4.93,-13.05
55.4,3.87,-12.82
57.41,3.01,-13.27
57.45,2.01,-13.27
58.45,1.02,-13.5
60.65,0.0,-12.89
60.64,1.06,-12.89
61.59,2.15,-13.1
61.54,3.23,-13.1
61.47,4.3,-13.1
61.39,5.37,-13.1
59.34,6.24,-12.68
57.28,7.03,-12.27
56.18,7.9,-12.06
56.03,8.87,-12.06
58.76,10.36,-12.68
76.81,14.93,-16.63
87.07,18.51,-18.92
200.15,46.21,-43.66
244.87,61.05,-53.64
316.51,84.81,-69.65
318.75,91.4,-70.48
317.1,96.95,-70.48
315.36,102.47,-70.48
301.5,103.82,-67.78
295.05,107.39,-66.74
288.56,110.77,-65.7
288.4,116.52,-66.12
289.93,123.07,-66.95
289.52,128.9,-67.36
289.89,135.18,-67.99
287.48,140.21,-67.99
298.07,151.87,-71.11
304.01,161.64,-73.18
306.27,169.77,-74.43
303.26,175.09,-74.43
292.61,175.82,-72.56
284.52,177.79,-71.31
273.99,177.93,-69.44
266.79,179.95,-68.4
262.01,183.46,-67.99
260.35,189.16,-68.4
261.7,197.2,-69.65
258.21,201.74,-69.65
253.89,205.6,-69.44
244.27,204.97,-67.78
242.14,210.49,-68.2
243.51,219.26,-69.65
243.23,226.81,-70.69
236.42,228.3,-69.86
230.32,230.32,-69.23
227.63,235.71,-69.65
224.14,240.36,-69.86
219.91,244.24,-69.86
215.62,248.04,-69.86
212.51,253.26,-70.27
206.83,255.41,-69.86
201.14,257.44,-69.44
194.85,258.57,-68.82
190.31,261.93,-68.82
185.14,264.41,-68.61
179.95,266.79,-68.4
174.21,268.25,-67.99
167.42,267.93,-67.16
162.22,269.98,-66.95
156.99,271.92,-66.74
151.27,272.91,-66.32
145.57,273.78,-65.91
141.21,277.15,-66.12
134.21,275.17,-65.08
129.39,277.48,-65.08
124.13,278.8,-64.87
119.24,280.92,-64.87
113.96,282.05,-64.66
108.32,282.17,-64.24
102.71,282.18,-63.83
97.45,283.01,-63.62
92.49,284.66,-63.62
87.22,285.3,-63.41
81.96,285.84,-63.21
76.46,285.34,-62.79
71.46,286.63,-62.79
66.01,285.92,-62.37
60.81,286.08,-62.17
55.43,285.17,-61.75
50.28,285.13,-61.54
45.29,285.97,-61.54
40.3,286.71,-61.54
35.17,286.4,-61.33
30.16,286.97,-61.33
25.15,287.46,-61.33
20.13,287.85,-61.33
15.05,287.18,-61.13
10.0,286.42,-60.92
4.98,285.58,-60.71
0.0,284.64,-60.5
-4.95,283.62,-60.29
-9.87,282.51,-60.09
-14.79,282.3,-60.09
-19.65,281.02,-59.88
-24.47,279.66,-59.67
-29.34,279.19,-59.67
-34.21,278.64,-59.67
-39.07,278.0,-59.67
-44.07,278.24,-59.88
-48.92,277.43,-59.88
-53.57,275.57,-59.67
-58.57,275.55,-59.88
-63.37,274.49,-59.88
-68.39,274.29,-60.09
-73.42,274.0,-60.29
-77.92,271.73,-60.09
-82.65,270.33,-60.09
-87.35,268.85,-60.09
-91.71,266.36,-59.88
-96.68,265.64,-60.09
-101.31,263.91,-60.09
-105.53,261.19,-59.88
-110.45,260.21,-60.09
-114.58,257.35,-59.88
-119.05,255.31,-59.88
-123.49,253.2,-59.88
-127.89,251.0,-59.88
-132.71,249.6,-60.09
-136.57,246.39,-59.88
-140.85,243.96,-59.88
-145.09,241.47,-59.88
-149.28,238.9,-59.88
-153.43,236.26,-59.88
-157.53,233.55,-59.88
-161.02,229.96,-59.67
-164.43,226.32,-59.46
-167.18,221.86,-59.05
-169.22,216.59,-58.42
-172.36,212.85,-58.22
-174.16,207.56,-57.59
-175.19,201.53,-56.76
-164.94,183.18,-52.39
-163.44,175.27,-50.94
-157.64,163.24,-48.24
-154.24,154.24,-46.36
-145.65,140.65,-43.04
-143.79,134.09,-41.79
-126.48,113.88,-36.18
-106.3,92.41,-29.94
-93.66,78.59,-25.99
-81.34,65.87,-22.25
-75.54,59.02,-20.38
-68.74,51.8,-18.3
-66.47,48.3,-17.46
-64.1,44.88,-16.63
-64.06,43.21,-16.43
-63.99,41.55,-16.22
-64.7,40.43,-16.22
-65.4,39.3,-16.22
-64.38,37.17,-15.8
-52.19,28.93,-12.68
-51.82,27.55,-12.47
-52.29,26.64,-12.47
-43.96,21.44,-10.4
-42.55,19.84,-9.98
-42.0,18.7,-9.77
-42.32,17.96,-9.77
-43.53,17.59,-9.98
-43.83,16.83,-9.98
-44.12,16.06,-9.98
-44.39,15.29,-9.98
-44.65,14.51,-9.98
-44.9,13.73,-9.98
-45.13,12.94,-9.98
-45.35,12.15,-9.98
-45.56,11.36,-9.98
-44.79,10.34,-9.77
-44.97,9.56,-9.77
-45.13,8.77,-9.77
-45.27,7.98,-9.77
-45.41,7.19,-9.77
-45.53,6.4,-9.77
-45.63,5.6,-9.77
-45.72,4.81,-9.77
-45.8,4.01,-9.77
-45.86,3.21,-9.77
-45.91,2.41,-9.77
-45.94,1.6,-9.77
-45.97,0.8,-9.77
-46.14,0.0,-8.97
-46.13,0.81,-8.97
-46.11,1.61,-8.97
-46.07,2.41,-8.97
-46.02,3.22,-8.97
-45.96,4.02,-8.97
-45.88,4.82,-8.97
-45.79,5.62,-8.97
-45.69,6.42,-8.97
-45.57,7.22,-8.97
-52.2,9.2,-10.3
-61.67,11.99,-12.21
-61.45,13.06,-12.21
-61.21,14.13,-12.21
-60.01,14.96,-12.02
-57.84,15.5,-11.64
-54.73,15.69,-11.07
-52.57,16.07,-10.69
-51.35,16.68,-10.49
-51.05,17.58,-10.49
-49.81,18.13,-10.3
-47.65,18.29,-9.92
-46.42,18.75,-9.73
-44.28,18.79,-9.35
-43.04,19.16,-9.16
-42.7,19.91,-9.16
-42.35,20.66,-9.16
-43.73,22.28,-9.54
-44.2,23.5,-9.73
-51.51,28.55,-11.45
-61.21,35.34,-13.74
-64.79,38.93,-14.69
-72.42,45.26,-16.6
-80.68,52.39,-18.7
-80.57,54.34,-18.89
-88.45,61.93,-20.99
-96.09,69.82,-23.09
-103.48,77.98,-25.19
-121.44,94.88,-29.96
-128.92,104.4,-32.25
-156.41,131.24,-39.69
-176.32,153.27,-45.41
-210.82,189.83,-55.14
-217.53,202.85,-57.82
-218.9,211.39,-59.15
-218.65,218.65,-60.1
-10360.04,10728.13,-2898.96
-211.55,226.86,-60.3
-206.9,229.79,-60.1
-202.86,233.37,-60.1
-198.13,236.12,-59.91
-193.36,238.78,-59.72
-189.16,242.12,-59.72
-185.5,246.16,-59.91
-180.02,247.78,-59.53
-175.67,250.88,-59.53
-171.81,254.72,-59.72
-166.81,256.86,-59.53
-162.3,259.73,-59.53
-157.74,262.52,-59.53
-153.13,265.24,-59.53
-148.48,267.87,-59.53
-145.17,273.02,-60.1
-140.38,275.51,-60.1
-135.12,277.04,-59.91
-130.68,280.24,-60.1
-125.37,281.58,-59.91
-120.82,284.63,-60.1
-115.47,285.79,-59.91
-110.46,287.76,-59.91
-105.09,288.72,-59.72
-100.03,290.51,-59.72
-94.95,292.21,-59.72
-89.83,293.82,-59.72
-84.42,294.4,-59.53
-79.27,295.83,-59.53
-74.09,297.17,-59.53
-68.9,298.42,-59.53
-63.68,299.57,-59.53
-58.44,300.64,-59.53
-53.18,301.61,-59.53
-47.91,302.5,-59.53
-42.49,302.32,-59.34
-37.09,302.04,-59.15
-31.81,302.64,-59.15
-26.52,303.15,-59.15
-21.3,304.54,-59.34
-15.98,304.87,-59.34
-10.65,305.1,-59.34
-5.33,305.24,-59.34
0.0,305.29,-59.34
5.33,305.24,-59.34
10.65,305.1,-59.34
15.98,304.87,-59.34
21.36,305.52,-59.53
26.78,306.08,-59.72
32.32,307.52,-60.1
37.68,306.91,-60.1
43.31,308.15,-60.49
48.53,306.38,-60.3
54.21,307.42,-60.68
59.56,306.42,-60.68
64.7,304.38,-60.49
70.22,304.16,-60.68
75.52,302.89,-60.68
80.54,300.57,-60.49
86.04,300.06,-60.68
91.27,298.52,-60.68
96.77,297.81,-60.87
102.59,297.94,-61.25
108.11,297.02,-61.44
113.27,295.09,-61.44
118.77,293.98,-61.63
125.04,294.57,-62.2
130.96,294.14,-62.59
136.49,292.7,-62.78
142.0,291.15,-62.97
147.96,290.38,-63.35
153.46,288.62,-63.54
159.9,288.47,-64.11
165.4,286.49,-64.3
170.88,284.4,-64.49
175.82,281.37,-64.49
181.78,279.91,-64.88
188.28,279.14,-65.45
193.69,276.61,-65.64
199.64,274.78,-66.02
206.17,273.6,-66.59
211.52,270.74,-66.78
217.45,268.53,-67.16
223.37,266.2,-67.55
230.55,265.22,-68.31
235.15,261.16,-68.31
241.01,258.45,-68.69
246.85,255.62,-69.07
251.96,251.96,-69.26
257.74,248.89,-69.65
263.48,245.69,-70.03
269.18,242.37,-70.41
272.63,236.99,-70.22
276.72,232.2,-70.22
281.5,227.95,-70.41
278.47,217.57,-68.69
279.87,210.9,-68.12
282.72,205.41,-67.93
285.46,199.88,-67.74
299.48,202.0,-70.22
304.61,197.81,-70.6
308.01,192.47,-70.6
307.12,184.54,-69.65
311.99,180.13,-70.03
320.24,177.51,-71.17
326.76,173.74,-71.93
334.99,170.68,-73.08
340.56,166.1,-73.65
346.08,161.38,-74.22
346.15,154.12,-73.65
345.17,146.52,-72.89
348.59,140.84,-73.08
350.08,134.38,-72.89
349.6,127.24,-72.32
323.0,111.22,-66.4
316.48,102.83,-64.68
317.29,97.01,-64.49
348.19,99.84,-70.41
365.05,97.81,-73.46
372.42,92.85,-74.61
392.15,90.54,-78.23
407.11,86.53,-80.9
413.38,80.35,-81.86
414.72,73.13,-81.86
411.09,65.11,-80.9
410.22,57.65,-80.52
265.01,32.54,-51.9
153.27,16.11,-29.96
147.66,12.92,-28.81
94.99,6.64,-18.51
65.68,3.44,-12.78
59.84,2.09,-11.64
58.89,1.03,-11.45
62.04,0.0,-10.94
63.02,1.1,-11.11
62.99,2.2,-11.11
62.94,3.3,-11.11
62.87,4.4,-11.11
61.81,5.41,-10.94
60.72,6.38,-10.77
61.58,7.56,-10.94
61.44,8.63,-10.94
114.78,18.18,-20.49
321.02,56.6,-57.48
384.75,74.79,-69.11
412.29,87.63,-74.32
418.37,96.59,-75.71
417.58,104.11,-75.88
416.65,111.64,-76.06
413.69,118.62,-75.88
410.61,125.54,-75.71
401.8,130.55,-74.5
378.05,130.17,-70.5
363.69,132.37,-68.24
353.05,135.52,-66.68
320.5,129.49,-60.95
309.12,131.22,-59.21
323.88,144.2,-62.51
338.27,157.74,-65.81
337.24,164.48,-66.16
345.72,176.15,-68.42
346.07,184.01,-69.11
345.39,191.46,-69.63
341.15,196.96,-69.46
333.44,200.35,-68.59
327.38,204.57,-68.07
320.46,208.11,-67.38
310.25,209.27,-65.99
305.74,214.08,-65.81
297.18,215.91,-64.77
295.72,222.84,-65.29
291.79,227.97,-65.29
283.18,229.31,-64.25
276.87,232.32,-63.73
272.03,236.47,-63.56
268.59,241.84,-63.73
272.25,253.88,-65.64
268.49,259.28,-65.81
263.92,263.92,-65.81
256.54,265.65,-65.12
251.19,269.37,-64.94
246.45,273.71,-64.94
240.99,277.23,-64.77
235.48,280.64,-64.6
228.07,281.64,-63.9
221.91,284.03,-63.56
215.14,285.5,-63.03
210.12,289.21,-63.03
203.92,291.22,-62.69
196.6,291.47,-61.99
190.95,294.03,-61.82
185.26,296.48,-61.65
178.54,297.14,-61.12
170.86,295.95,-60.26
165.2,298.02,-60.08
159.97,300.86,-60.08
154.25,302.73,-59.91
148.08,303.6,-59.56
142.34,305.25,-59.39
136.19,305.89,-59.04
130.06,306.4,-58.69
123.96,306.8,-58.35
118.23,308.0,-58.17
112.16,308.16,-57.82
106.13,308.21,-57.48
100.73,310.02,-57.48
94.73,309.84,-57.13
88.49,308.61,-56.61
83.09,310.11,-56.61
77.43,310.56,-56.44
71.56,309.94,-56.09
65.73,309.22,-55.74
60.32,310.32,-55.74
55.07,312.29,-55.91
49.45,312.23,-55.74
44.13,314.02,-55.91
38.65,314.74,-55.91
33.15,315.37,-55.91
27.64,315.9,-55.91
22.05,315.35,-55.74
16.49,314.71,-55.57
11.0,314.95,-55.57
5.47,313.12,-55.22
0.0,312.18,-55.05
-5.4,309.18,-54.53
-10.79,309.04,-54.53
-16.18,308.81,-54.53
-21.5,307.49,-54.35
-26.87,307.07,-54.35
-32.22,306.56,-54.35
-37.57,305.95,-54.35
-42.9,305.25,-54.35
-48.22,304.45,-54.35
-53.53,303.56,-54.35
-58.63,301.61,-54.18
-63.88,300.55,-54.18
-69.34,300.34,-54.35
-74.57,299.09,-54.35
-80.03,298.69,-54.53
-85.51,298.2,-54.7
-90.7,296.66,-54.7
-96.17,295.97,-54.87
-101.0,293.31,-54.7
-106.1,291.51,-54.7
-111.52,290.53,-54.87
-116.58,288.54,-54.87
-121.6,286.46,-54.87
-126.58,284.29,-54.87
-131.1,281.15,-54.7
-135.99,278.82,-54.7
-141.28,277.28,-54.87
-146.1,274.77,-54.87
-151.35,273.04,-55.05
-155.6,269.51,-54.87
-160.28,266.75,-54.87
-164.91,263.91,-54.87
-168.95,260.17,-54.7
-172.37,255.55,-54.35
-176.24,251.69,-54.18
-181.18,249.38,-54.35
-185.51,246.18,-54.35
-190.38,243.68,-54.53
-194.6,240.32,-54.53
-198.77,236.88,-54.53
-202.87,233.38,-54.53
-207.57,230.53,-54.7
-210.89,226.16,-54.53
-215.49,223.15,-54.7
-220.05,220.05,-54.87
-223.86,216.18,-54.87
-227.6,212.24,-54.87
-230.53,207.57,-54.7
-234.12,203.52,-54.7
-237.64,199.4,-54.7
-230.37,186.55,-52.27
-225.83,176.44,-50.53
-228.87,172.47,-50.53
-211.13,153.4,-46.02
-146.01,102.24,-31.43
-121.65,82.05,-25.87
-118.11,76.7,-24.83
-96.04,60.01,-19.97
-92.86,55.79,-19.1
-93.82,54.16,-19.1
-86.99,48.22,-17.54
-81.74,43.46,-16.32
-76.34,38.9,-15.11
-60.19,29.36,-11.81
-52.66,24.56,-10.25
-50.38,22.43,-9.72
-50.77,21.55,-9.72
-45.65,18.45,-8.68
-45.05,17.29,-8.51
-45.35,16.5,-8.51
-45.63,15.71,-8.51
-46.83,15.22,-8.68
-48.03,14.68,-8.86
-49.23,14.12,-9.03
-50.42,13.51,-9.2
-52.56,13.1,-9.55
-52.78,12.18,-9.55
-53.94,11.47,-9.72
-55.1,10.71,-9.9
-55.28,9.75,-9.9
-56.42,8.94,-10.07
-59.49,8.36,-10.59
-61.58,7.56,-10.94
-62.68,6.59,-11.11
-63.77,5.58,-11.29
-64.84,4.53,-11.46
-66.88,3.5,-11.81
-67.91,2.37,-11.98
-68.93,1.2,-12.16
-69.14,0.0,-10.95
-70.12,1.22,-11.11
-70.08,2.45,-11.11
-70.03,3.67,-11.11
-69.96,4.89,-11.11
-70.84,6.2,-11.26
-70.72,7.43,-11.26
-70.58,8.67,-11.26
-70.42,9.9,-11.26
-69.26,10.97,-11.11
-68.09,12.01,-10.95
-67.87,13.19,-10.95
-66.66,14.17,-10.79
-64.48,14.89,-10.48
-64.21,16.01,-10.48
-61.06,16.36,-10.01
-58.86,16.88,-9.7
-55.73,17.04,-9.23
-54.48,17.7,-9.07
-54.16,18.65,-9.07
-52.9,19.26,-8.92
-50.71,19.47,-8.6
-50.37,20.35,-8.6
-49.1,20.84,-8.45
-46.02,20.49,-7.98
-44.76,20.87,-7.82
-44.39,21.65,-7.82
-44.88,22.87,-7.98
-45.35,24.11,-8.13
-66.52,36.87,-12.05
-68.43,39.51,-12.51
-68.58,41.2,-12.67
-72.03,45.01,-13.45
-88.63,57.56,-16.74
-99.08,66.83,-18.93
-100.32,70.25,-19.4
-133.44,96.95,-26.12
-136.46,102.83,-27.06
-135.43,105.81,-27.22
-153.52,124.31,-31.29
-187.64,157.45,-38.8
-185.61,161.35,-38.95
-212.12,191.0,-45.21
-222.48,207.47,-48.18
-220.96,213.38,-48.65
-222.09,222.09,-49.75
-218.87,226.64,-49.9
-214.21,229.71,-49.75
-209.5,232.68,-49.59
-204.76,235.55,-49.43
-201.26,239.85,-49.59
-196.42,242.55,-49.43
-192.15,245.95,-49.43
-187.83,249.26,-49.43
-184.03,253.3,-49.59
-179.59,256.47,-49.59
-174.53,258.75,-49.43
-169.99,261.76,-49.43
-165.39,264.68,-49.43
-160.75,267.53,-49.43
-156.05,270.29,-49.43
-151.31,272.98,-49.43
-146.99,276.45,-49.59
-142.14,278.97,-49.59
-137.69,282.3,-49.75
-132.74,284.66,-49.75
-127.75,286.93,-49.75
-123.11,290.03,-49.9
-117.66,291.21,-49.75
-112.56,293.22,-49.75
-107.42,295.14,-49.75
-101.93,296.04,-49.59
-96.75,297.77,-49.59
-91.54,299.42,-49.59
-86.57,301.92,-49.75
-81.04,302.43,-49.59
-75.51,302.84,-49.43
-69.99,303.15,-49.28
-64.69,304.32,-49.28
-59.36,305.41,-49.28
-54.2,307.37,-49.43
-48.67,307.29,-49.28
-43.3,308.09,-49.28
-37.8,307.82,-49.12
-32.42,308.44,-49.12
-27.03,308.95,-49.12
-21.56,308.39,-48.96
-16.23,309.71,-49.12
-10.79,308.96,-48.96
-5.4,309.1,-48.96
0.0,309.15,-48.96
5.4,309.1,-48.96
10.82,309.95,-49.12
16.28,310.7,-49.28
21.63,309.38,-49.12
27.12,309.94,-49.28
32.73,311.38,-49.59
38.16,310.76,-49.59
43.71,311.03,-49.75
49.29,311.19,-49.9
54.71,310.29,-49.9
60.12,309.28,-49.9
65.71,309.15,-50.06
71.32,308.92,-50.22
76.7,307.63,-50.22
82.31,307.2,-50.37
87.39,304.77,-50.22
92.98,304.14,-50.37
98.58,303.41,-50.53
103.86,301.64,-50.53
109.79,301.64,-50.84
115.74,301.52,-51.15
121.36,300.37,-51.31
126.58,298.21,-51.31
132.97,298.66,-51.78
139.0,298.08,-52.09
144.18,295.61,-52.09
150.21,294.81,-52.41
156.26,293.89,-52.72
160.89,290.25,-52.56
166.92,289.11,-52.87
173.47,288.7,-53.34
178.48,285.62,-53.34
183.44,282.47,-53.34
189.99,281.68,-53.81
196.01,279.94,-54.13
202.03,278.07,-54.44
208.04,276.08,-54.75
214.04,273.96,-55.06
220.66,272.49,-55.53
226.65,270.11,-55.85
231.33,266.11,-55.85
237.92,264.24,-56.32
244.52,262.21,-56.79
250.43,259.33,-57.1
254.92,254.92,-57.1
261.46,252.49,-57.57
266.55,248.56,-57.72
271.58,244.53,-57.88
276.55,240.4,-58.04
280.7,235.54,-58.04
284.77,230.6,-58.04
288.75,225.6,-58.04
287.12,216.36,-56.94
284.46,206.68,-55.69
287.22,201.11,-55.53
295.6,199.38,-56.47
305.66,198.5,-57.72
310.75,194.18,-58.04
310.71,186.69,-57.41
314.77,181.73,-57.57
317.9,176.21,-57.57
329.65,175.28,-59.13
340.57,173.53,-60.54
344.44,167.99,-60.7
350.9,163.63,-61.32
350.99,156.27,-60.85
351.85,149.35,-60.54
353.49,142.82,-60.38
357.77,137.33,-60.7
348.05,126.68,-58.66
319.39,109.97,-53.5
317.5,103.16,-52.87
318.31,97.32,-52.72
340.84,97.74,-56.16
362.53,97.14,-59.45
381.42,95.1,-62.26
403.23,93.09,-65.55
414.46,88.1,-67.11
418.84,81.41,-67.58
422.14,74.44,-67.89
418.5,66.28,-67.11
418.62,58.83,-66.95
379.39,46.58,-60.54
216.1,22.71,-34.42
183.99,16.1,-29.25
96.56,6.75,-15.33
72.0,3.77,-11.42
60.21,2.1,-9.54
60.24,1.05,-9.54
61.4,0.0,-8.63
62.38,1.09,-8.77
63.34,2.21,-8.91
63.29,3.32,-8.91
63.22,4.42,-8.91
63.14,5.52,-8.91
61.06,6.42,-8.63
73.72,9.05,-10.44
135.33,19.02,-19.21
172.14,27.26,-24.49
188.22,33.19,-26.86
385.91,75.01,-55.25
421.35,89.56,-60.54
424.55,98.02,-61.24
424.7,105.89,-61.51
426.61,114.31,-62.07
420.74,120.65,-61.51
416.68,127.39,-61.24
410.63,133.42,-60.68
385.76,132.83,-57.34
373.15,135.82,-55.81
355.93,136.63,-53.58
325.03,131.32,-49.27
454.86,193.08,-69.45
486.7,216.69,-74.88
487.34,227.25,-75.57
488.64,238.32,-76.41
485.28,247.26,-76.55
474.77,252.44,-75.57
465.97,258.29,-74.88
459.67,265.39,-74.6
454.12,272.86,-74.46
440.89,275.5,-73.07
428.54,278.3,-71.81
420.34,283.52,-71.26
412.89,289.11,-70.84
404.58,293.94,-70.28
396.22,298.58,-69.73
383.93,299.96,-68.47
369.4,299.13,-66.8
361.85,303.63,-66.39
354.25,307.95,-65.97
344.41,310.11,-65.13
338.22,315.39,-64.99
331.24,319.87,-64.72
324.9,324.9,-64.58
320.56,331.95,-64.85
314.72,337.49,-64.85
307.46,341.46,-64.58
297.55,342.29,-63.74
290.26,345.92,-63.46
269.22,332.46,-60.12
262.16,335.55,-59.84
256.86,340.86,-59.98
250.87,345.29,-59.98
245.94,351.24,-60.26
238.67,353.84,-59.98
231.38,356.29,-59.71
225.65,361.11,-59.84
215.74,359.05,-58.87
209.94,363.62,-59.01
201.64,363.77,-58.45
193.4,363.73,-57.9
186.57,366.17,-57.76
178.85,366.7,-57.34
171.59,367.97,-57.06
163.93,368.19,-56.64
157.09,370.09,-56.5
149.87,370.94,-56.23
141.95,369.8,-55.67
135.48,372.22,-55.67
128.32,372.65,-55.39
120.87,372.01,-54.97
114.07,373.12,-54.83
106.18,370.29,-54.14
99.96,373.04,-54.28
92.95,372.81,-54.0
85.99,372.45,-53.72
79.27,372.92,-53.58
72.75,374.25,-53.58
66.38,376.44,-53.72
59.8,377.54,-53.72
52.92,376.56,-53.44
46.22,376.45,-53.3
39.75,378.18,-53.44
33.06,377.83,-53.3
26.39,377.36,-53.16
19.75,376.78,-53.02
13.13,376.07,-52.89
6.5,372.28,-52.33
0.0,371.35,-52.19
-6.45,369.31,-51.91
-12.79,366.18,-51.49
-19.18,365.9,-51.49
-25.42,363.53,-51.22
-31.85,364.02,-51.35
-37.99,361.44,-51.08
-44.29,360.72,-51.08
-50.86,361.85,-51.35
-56.85,358.95,-51.08
-63.11,357.91,-51.08
-69.35,356.75,-51.08
-75.77,356.46,-51.22
-81.53,353.15,-50.94
-87.68,351.67,-50.94
-93.81,350.09,-50.94
-99.36,346.49,-50.66
-105.39,344.71,-50.66
-111.39,342.82,-50.66
-117.03,339.88,-50.52
-123.28,338.72,-50.66
-129.18,336.52,-50.66
-135.77,336.05,-50.94
-141.62,333.63,-50.94
-147.82,332.01,-51.08
-154.43,331.17,-51.35
-160.18,328.43,-51.35
-166.79,327.35,-51.63
-172.48,324.39,-51.63
-178.59,322.19,-51.77
-185.18,320.74,-52.05
-191.26,318.31,-52.19
-197.31,315.76,-52.33
-202.25,311.44,-52.19
-208.21,308.68,-52.33
-214.13,305.81,-52.47
-220.02,302.83,-52.61
-225.87,299.74,-52.75
-232.89,298.09,-53.16
-239.31,295.52,-53.44
-244.43,291.3,-53.44
-248.18,285.49,-53.16
-254.45,282.59,-53.44
-259.34,278.11,-53.44
-263.46,272.83,-53.3
-268.89,268.89,-53.44
-273.54,264.15,-53.44
-278.11,259.34,-53.44
-281.85,253.78,-53.3
-284.75,247.53,-53.02
-288.26,241.88,-52.89
-291.67,236.19,-52.75
-294.97,230.46,-52.61
-298.95,225.27,-52.61
-303.63,220.6,-52.75
-309.06,216.41,-53.02
-311.97,210.43,-52.89
-314.76,204.41,-52.75
-317.44,198.36,-52.61
-320.86,192.79,-52.61
-319.88,184.68,-51.91
-317.0,175.71,-50.94
-320.01,170.15,-50.94
-323.82,164.99,-51.08
-323.09,157.58,-50.52
-318.61,148.57,-49.41
-319.34,142.18,-49.13
-321.78,136.59,-49.13
-319.52,129.09,-48.43
-321.72,123.5,-48.43
-321.04,116.85,-48.01
-320.22,110.26,-47.6
-321.15,104.35,-47.46
-300.2,91.78,-44.12
-281.76,80.79,-41.2
-242.0,64.84,-35.21
-230.6,57.5,-33.4
-189.12,43.66,-27.28
-150.14,31.91,-21.57
-124.43,24.19,-17.81
-119.95,21.15,-17.12
-105.63,16.73,-15.03
-95.12,13.37,-13.5
-91.41,11.22,-12.94
-86.67,9.11,-12.25
-85.83,7.51,-12.11
-84.96,5.94,-11.97
-84.06,4.41,-11.83
-82.14,2.87,-11.55
-82.18,1.43,-11.55
-82.38,0.0,-10.12
-81.38,1.42,-9.99
-81.34,2.84,-9.99
-81.28,4.26,-9.99
-81.19,5.68,-9.99
-82.07,7.18,-10.12
-83.9,8.82,-10.36
-83.74,10.28,-10.36
-85.51,12.02,-10.6
-86.27,13.66,-10.72
-100.68,17.75,-12.55
-106.2,20.64,-13.28
-107.77,22.91,-13.53
-122.82,28.36,-15.48
-142.53,35.54,-18.04
-196.54,52.66,-24.98
-413.12,118.46,-52.77
-410.99,125.65,-52.77
-406.85,132.19,-52.53
-402.6,138.63,-52.28
-396.39,144.28,-51.79
-391.03,150.1,-51.43
-386.51,156.16,-51.19
-379.16,160.94,-50.58
-372.67,165.92,-50.09
-367.92,171.56,-49.84
-363.08,177.09,-49.6
-360.82,183.85,-49.72
-358.43,190.58,-49.84
-354.18,196.33,-49.72
-350.7,202.48,-49.72
-346.27,208.06,-49.6
-345.95,216.17,-50.09
-342.12,222.18,-50.09
-338.19,228.12,-50.09
-335.79,235.12,-50.33
-330.83,240.36,-50.21
-326.59,246.1,-50.21
-323.02,252.37,-50.33
-318.57,257.97,-50.33
-312.5,262.22,-50.09
-307.12,266.98,-49.97
-303.89,273.63,-50.21
-300.52,280.24,-50.45
-294.87,284.76,-50.33
-293.37,293.37,-50.94
-289.58,299.87,-51.19
-284.98,305.6,-51.31
-278.94,309.79,-51.19
-272.84,313.87,-51.06
-267.32,318.58,-51.06
-261.1,322.43,-50.94
-254.21,325.37,-50.7
-246.7,327.38,-50.33
-241.53,332.44,-50.45
-233.41,333.35,-49.97
-226.45,335.73,-49.72
-220.02,338.79,-49.6
-213.54,341.74,-49.48
-206.52,343.71,-49.24
-198.51,343.83,-48.75
-191.03,344.64,-48.38
-184.52,347.04,-48.26
-178.89,351.09,-48.38
-171.87,352.38,-48.14
-165.69,355.32,-48.14
-159.46,358.16,-48.14
-152.8,359.98,-48.02
-146.12,361.67,-47.89
-138.72,361.38,-47.53
-131.38,360.95,-47.16
-125.06,363.19,-47.16
-118.7,365.32,-47.16
-112.01,366.38,-47.04
-105.06,366.37,-46.8
-98.9,369.11,-46.92
-92.45,370.78,-46.92
-85.96,372.34,-46.92
-79.45,373.78,-46.92
-73.1,376.08,-47.04
-66.87,379.26,-47.29
-60.24,380.37,-47.29
-53.6,381.36,-47.29
-46.81,381.25,-47.16
-40.25,383.0,-47.29
-33.48,382.65,-47.16
-26.86,384.17,-47.29
-20.15,384.58,-47.29
-13.51,386.86,-47.53
-6.74,386.04,-47.41
0.0,386.1,-47.41
6.77,388.03,-47.65
13.61,389.83,-47.89
20.52,391.52,-48.14
27.35,391.1,-48.14
34.34,392.54,-48.38
41.5,394.84,-48.75
48.63,396.03,-48.99
55.94,398.07,-49.36
62.88,397.03,-49.36
70.84,401.74,-50.09
77.65,399.47,-49.97
84.61,398.05,-49.97
91.77,397.48,-50.09
98.45,394.86,-49.97
105.84,395.0,-50.21
113.26,395.0,-50.45
120.43,393.91,-50.58
127.59,392.69,-50.7
134.43,390.4,-50.7
141.9,389.86,-50.94
149.04,388.25,-51.06
156.16,386.51,-51.19
163.27,384.64,-51.31
171.57,385.36,-51.79
179.53,385.01,-52.16
186.22,381.82,-52.16
194.21,381.16,-52.53
202.23,380.34,-52.89
210.28,379.36,-53.26
216.87,375.63,-53.26
224.42,373.49,-53.5
230.9,369.52,-53.5
239.48,368.76,-53.99
247.54,366.99,-54.35
254.48,363.43,-54.48
261.95,360.54,-54.72
270.59,359.09,-55.21
281.09,359.78,-56.06
287.95,355.59,-56.18
295.39,352.03,-56.43
302.79,348.32,-56.67
308.83,342.99,-56.67
317.47,340.45,-57.16
328.88,340.57,-58.13
338.29,338.29,-58.74
346.99,335.09,-59.23
357.14,333.04,-59.96
363.64,327.42,-60.08
370.05,321.68,-60.2
374.08,313.89,-59.96
379.51,307.32,-59.96
384.81,300.65,-59.96
395.55,298.07,-60.81
410.33,298.12,-62.28
417.91,292.62,-62.64
432.0,291.39,-63.98
443.68,288.13,-64.96
450.32,281.39,-65.2
455.17,273.49,-65.2
462.45,266.99,-65.57
471.38,261.29,-66.18
480.25,255.35,-66.78
486.4,247.83,-67.03
495.11,241.48,-67.64
507.35,236.58,-68.73
517.75,230.52,-69.59
532.65,226.1,-71.05
536.52,216.77,-71.05
546.71,209.86,-71.9
469.14,170.75,-61.3
406.36,139.92,-52.77
346.44,112.56,-44.73
336.01,102.73,-43.14
362.56,103.96,-46.31
387.33,103.78,-49.24
407.38,101.57,-51.55
439.07,101.37,-55.33
561.16,119.28,-70.44
557.31,108.33,-69.71
552.27,97.38,-68.86
554.86,87.88,-68.98
544.52,76.53,-67.52
64561.67,7927.18,-7986.71
64690.18,6799.21,-7986.71
64798.99,5669.18,-7986.71
364.37,25.48,-44.85
333.04,17.45,-40.95
318.41,11.12,-39.12
309.63,5.4,-38.02
284.43,0.0,-29.9
106.4,1.86,-11.18
101.38,3.54,-10.66
104.28,5.47,-10.98
105.16,7.35,-11.08
105.02,9.19,-11.08
275.95,29.0,-29.16
324.76,39.88,-34.39
339.77,47.75,-36.06
343.8,54.45,-36.58
64185.82,11317.69,-6850.27
63978.53,12436.17,-6850.27
63751.74,13550.85,-6850.27
530.06,122.37,-57.18
545.21,135.94,-59.06
552.36,148.01,-60.1
557.35,159.82,-60.94
548.77,167.77,-60.31
450.22,146.29,-49.76
409.05,140.85,-45.47
371.95,135.38,-41.6
339.82,130.44,-38.26
332.88,134.49,-37.73
327.74,139.12,-37.42
551.48,245.54,-63.45
546.21,254.7,-63.34
541.69,264.2,-63.34
521.04,265.48,-61.46
511.94,272.2,-60.94
502.76,278.68,-60.42
495.24,285.93,-60.1
489.32,294.01,-60.0
477.37,298.29,-59.16
462.08,300.08,-57.91
453.47,305.87,-57.49
443.18,310.32,-56.86
436.89,317.42,-56.76
431.28,325.0,-56.76
422.41,330.02,-56.34
415.04,336.09,-56.13
403.02,338.17,-55.3
387.3,336.67,-53.94
375.45,338.06,-53.1
365.86,341.17,-52.58
357.7,345.43,-52.26
351.62,351.62,-52.26
345.43,357.7,-52.26
340.49,365.13,-52.47
333.4,370.28,-52.37
325.58,374.54,-52.16
309.4,368.73,-50.59
301.04,371.76,-50.28
292.06,373.82,-49.86
282.5,374.89,-49.34
275.91,379.76,-49.34
269.25,384.52,-49.34
258.04,382.57,-48.5
249.7,384.51,-48.19
242.95,388.81,-48.19
234.08,389.58,-47.77
224.26,388.44,-47.14
217.93,393.16,-47.25
210.57,396.03,-47.14
200.92,394.33,-46.52
193.57,396.88,-46.41
185.77,398.39,-46.2
177.58,398.85,-45.89
170.2,400.97,-45.78
163.18,403.88,-45.78
154.32,402.03,-45.26
146.26,401.85,-44.95
139.23,404.35,-44.95
131.53,404.82,-44.74
122.7,401.35,-44.11
115.96,404.39,-44.22
108.11,403.47,-43.9
100.57,403.36,-43.69
93.07,403.12,-43.48
85.6,402.73,-43.27
78.37,403.19,-43.17
70.98,402.54,-42.96
64.1,404.7,-43.07
57.03,405.76,-43.07
49.94,406.69,-43.07
42.73,406.51,-42.96
35.54,406.2,-42.86
28.37,405.77,-42.75
21.03,401.24,-42.23
14.02,401.54,-42.23
6.98,399.74,-42.02
0.0,397.81,-41.81
-6.91,395.76,-41.6
-13.68,391.6,-41.18
-20.4,389.32,-40.98
-27.06,386.92,-40.77
-33.63,384.41,-40.56
-40.33,383.76,-40.56
-47.27,384.97,-40.77
-53.84,383.1,-40.66
-60.21,380.14,-40.45
-66.66,378.05,-40.35
-73.44,377.81,-40.45
-79.81,375.5,-40.35
-86.36,374.05,-40.35
-93.11,373.45,-40.45
-99.61,371.77,-40.45
-105.26,367.1,-40.14
-111.95,366.16,-40.24
-118.01,363.21,-40.14
-124.01,360.15,-40.03
-130.62,358.87,-40.14
-136.86,356.53,-40.14
-143.81,355.93,-40.35
-150.77,355.2,-40.56
-156.95,352.51,-40.56
-163.5,350.62,-40.66
-170.46,349.5,-40.87
-176.54,346.48,-40.87
-184.43,346.85,-41.29
-190.45,343.58,-41.29
-196.42,340.21,-41.29
-202.33,336.73,-41.29
-208.7,333.99,-41.39
-214.5,330.29,-41.39
-220.23,326.5,-41.39
-227.6,325.05,-41.71
-235.0,323.44,-42.02
-240.6,319.29,-42.02
-247.98,317.4,-42.33
-253.48,313.02,-42.33
-259.54,309.31,-42.44
-266.21,306.23,-42.65
-273.51,303.76,-42.96
-279.44,299.67,-43.07
-286.01,296.18,-43.27
-292.55,292.55,-43.48
-298.32,288.09,-43.59
-304.76,284.19,-43.8
-308.19,277.5,-43.59
-312.99,272.08,-43.59
-315.41,264.66,-43.27
-316.88,256.61,-42.86
-319.75,249.81,-42.65
-324.06,244.2,-42.65
-327.47,237.92,-42.54
-332.38,232.74,-42.65
-337.22,227.46,-42.75
-341.97,222.08,-42.86
-343.26,214.5,-42.54
-346.96,208.47,-42.54
-349.68,201.89,-42.44
-354.02,196.24,-42.54
-356.51,189.56,-42.44
-357.99,182.41,-42.23
-356.65,173.95,-41.71
-357.83,166.86,-41.5
-361.6,160.99,-41.6
-364.35,154.66,-41.6
-367.92,148.65,-41.71
-372.31,142.92,-41.92
-377.56,137.42,-42.23
-379.9,130.81,-42.23
-383.07,124.47,-42.33
-390.89,119.51,-42.96
-394.83,113.21,-43.17
-397.7,106.56,-43.27
-399.5,99.61,-43.27
-402.15,92.84,-43.38
-378.42,80.43,-40.66
-375.86,73.06,-40.24
-376.09,66.32,-40.14
-344.78,54.61,-36.69
-240.3,33.77,-25.5
-215.19,26.42,-22.79
-187.92,19.75,-19.86
-186.26,16.3,-19.65
-148.81,10.41,-15.68
-111.23,5.83,-11.71
-102.37,3.57,-10.77
-95.46,1.67,-10.03
-93.64,0.0,-8.19
-88.65,1.55,-7.76
-87.61,3.06,-7.67
-87.54,4.59,-7.67
-87.45,6.12,-7.67
-87.33,7.64,-7.67
-91.15,9.58,-8.02
-125.57,15.42,-11.07
-126.27,17.75,-11.16
-158.41,25.09,-14.03
-224.66,39.61,-19.96
-332.48,64.63,-29.63
-385.87,82.02,-34.51
-401.85,92.78,-36.08
-419.51,104.59,-37.83
-419.54,112.42,-38.0
-419.43,120.27,-38.17
-417.27,127.57,-38.17
-411.19,133.6,-37.83
-407.85,140.43,-37.74
-400.66,145.83,-37.3
-394.33,151.37,-36.95
-390.71,157.86,-36.87
-386.06,163.87,-36.69
-376.77,167.75,-36.08
-371.08,173.04,-35.82
-367.1,179.05,-35.73
-365.7,186.33,-35.91
-362.39,192.69,-35.91
-358.97,198.98,-35.91
-356.31,205.71,-36.0
-351.81,211.39,-35.91
-349.76,218.55,-36.08
-346.72,225.17,-36.17
-341.92,230.62,-36.08
-338.65,237.13,-36.17
-334.46,243.0,-36.17
-330.17,248.8,-36.17
-326.57,255.14,-36.26
-319.74,258.92,-36.0
-315.94,265.1,-36.08
-311.26,270.57,-36.08
-307.23,276.63,-36.17
-303.09,282.63,-36.26
-298.11,287.88,-36.26
-296.56,296.56,-36.69
-292.72,303.12,-36.87
-287.39,308.19,-36.87
-281.3,312.41,-36.78
-274.5,315.77,-36.61
-268.3,319.75,-36.52
-261.43,322.84,-36.34
-254.53,325.78,-36.17
-247.6,328.58,-36.0
-240.66,331.24,-35.82
-233.7,333.76,-35.65
-227.84,337.79,-35.65
-220.82,340.04,-35.47
-213.27,341.31,-35.21
-207.8,345.83,-35.3
-200.24,346.82,-35.04
-192.7,347.65,-34.78
-186.61,350.96,-34.78
-180.45,354.16,-34.78
-173.37,355.46,-34.6
-166.72,357.53,-34.51
-160.86,361.3,-34.6
-154.53,364.05,-34.6
-146.66,363.0,-34.25
-139.59,363.64,-34.08
-133.22,366.02,-34.08
-126.81,368.29,-34.08
-120.06,369.5,-33.99
-113.3,370.59,-33.9
-105.99,369.64,-33.64
-99.52,371.43,-33.64
-93.27,374.08,-33.73
-86.72,375.65,-33.73
-79.95,376.13,-33.64
-73.75,379.42,-33.82
-67.47,382.61,-33.99
-60.62,382.75,-33.9
-54.07,384.73,-33.99
-47.23,384.63,-33.9
-40.4,384.41,-33.82
-33.77,386.05,-33.9
-27.03,386.58,-33.9
-20.33,387.98,-33.99
-13.56,388.28,-33.99
-6.78,388.46,-33.99
0.0,388.52,-33.99
6.82,390.45,-34.17
13.7,392.26,-34.34
20.7,394.95,-34.6
27.66,395.52,-34.69
34.64,395.97,-34.78
42.07,400.26,-35.21
49.41,402.43,-35.47
56.57,402.49,-35.56
63.89,403.41,-35.73
71.27,404.2,-35.91
78.12,401.91,-35.82
85.13,400.49,-35.82
92.1,398.94,-35.82
99.29,398.24,-35.91
106.74,398.37,-36.08
114.23,398.36,-36.26
121.75,398.21,-36.43
128.37,395.08,-36.34
135.25,392.78,-36.34
142.42,391.3,-36.43
149.58,389.68,-36.52
157.48,389.78,-36.78
165.04,388.81,-36.95
173.42,389.51,-37.3
180.61,387.33,-37.39
187.35,384.12,-37.39
195.38,383.45,-37.65
203.44,382.62,-37.91
211.54,381.63,-38.17
218.17,377.88,-38.17
226.78,377.43,-38.52
232.81,372.57,-38.44
241.44,371.79,-38.78
249.57,370.0,-39.05
255.41,364.77,-38.96
264.67,364.28,-39.39
272.78,362.0,-39.66
285.19,365.03,-40.53
291.52,360.0,-40.53
297.76,354.86,-40.53
307.83,354.12,-41.05
313.96,348.69,-41.05
320.0,343.16,-41.05
332.86,344.69,-41.92
341.64,341.64,-42.27
351.85,339.78,-42.79
359.91,335.63,-43.05
367.2,330.63,-43.23
373.66,324.82,-43.32
379.28,318.25,-43.32
384.77,311.58,-43.32
390.15,304.82,-43.32
399.39,300.96,-43.75
412.64,299.8,-44.62
421.07,294.84,-44.97
440.2,296.92,-46.45
446.98,290.27,-46.63
451.98,282.43,-46.63
457.69,275.01,-46.72
465.01,268.47,-46.98
474.85,263.22,-47.5
482.01,256.29,-47.76
488.19,248.74,-47.94
498.72,243.24,-48.55
511.92,238.71,-49.42
520.56,231.77,-49.85
526.36,223.43,-50.03
545.88,220.55,-51.51
554.3,212.77,-51.94
463.38,168.66,-43.14
362.64,124.87,-33.55
342.02,111.13,-31.46
338.2,103.4,-30.94
361.02,103.52,-32.86
393.56,105.45,-35.65
417.57,104.11,-37.65
458.15,105.77,-41.14
567.12,120.54,-50.72
568.16,110.44,-50.64
557.24,98.26,-49.5
556.9,88.2,-49.33
544.55,76.53,-48.11
64798.99,7956.32,-5711.75
64927.98,6824.21,-5711.75
65037.19,5690.02,-5711.75
369.68,25.85,-32.42
340.23,17.83,-29.81
322.57,11.26,-28.24
309.77,5.41,-27.11
305.25,0.0,-21.35
314.18,5.48,-21.97
319.03,11.14,-22.32
320.78,16.81,-22.46
319.44,22.34,-22.39
322.97,28.26,-22.67
351.2,36.91,-24.69
352.49,43.28,-24.83
353.65,49.7,-24.97
355.69,56.34,-25.18
64382.16,11352.31,-4571.49
64174.23,12474.21,-4571.49
63946.75,13592.3,-4571.49
63699.79,14706.26,-4571.49
63433.43,15815.73,-4571.49
63147.75,16920.39,-4571.49
62842.83,18019.89,-4571.49
62518.77,19113.91,-4571.49
62175.66,20202.1,-4571.49
380.12,130.88,-28.11
345.9,125.9,-25.74
330.61,126.91,-24.76
324.65,131.17,-24.48
322.31,136.81,-24.48
59723.36,26590.55,-4571.49
59250.2,27628.82,-4571.49
754.04,367.77,-58.67
733.29,373.63,-57.55
683.5,363.42,-54.13
675.31,374.33,-53.99
655.71,378.58,-52.95
645.58,387.91,-52.67
623.49,389.6,-51.41
599.03,389.01,-49.95
586.36,395.5,-49.46
579.36,405.68,-49.46
556.86,404.58,-48.13
530.6,399.83,-46.46
515.68,402.89,-45.76
502.36,406.81,-45.2
486.78,408.46,-44.43
480.33,417.55,-44.5
468.52,421.86,-44.09
464.01,432.69,-44.37
456.39,440.73,-44.37
448.62,448.62,-44.37
440.73,456.39,-44.37
428.61,459.63,-43.95
417.86,464.08,-43.67
405.77,466.78,-43.25
394.35,469.97,-42.9
383.58,473.68,-42.62
370.95,474.8,-42.13
357.21,474.03,-41.51
348.29,479.39,-41.44
338.73,483.76,-41.3
319.64,473.88,-39.97
310.77,478.55,-39.9
301.32,482.21,-39.76
289.77,482.26,-39.34
278.82,482.93,-38.99
269.86,486.85,-38.92
261.8,492.37,-38.99
250.45,491.53,-38.58
239.2,490.44,-38.16
229.34,491.83,-37.95
219.1,492.11,-37.67
209.7,494.03,-37.53
200.67,496.68,-37.46
191.26,498.25,-37.32
181.85,499.64,-37.18
173.11,502.73,-37.18
163.07,501.88,-36.9
151.95,497.02,-36.34
140.78,490.97,-35.72
131.16,489.5,-35.44
122.6,491.71,-35.44
112.2,486.0,-34.88
102.04,480.08,-34.32
93.65,481.78,-34.32
85.05,482.36,-34.25
74.44,469.98,-33.27
66.09,470.22,-33.2
57.99,472.29,-33.27
49.84,474.22,-33.34
41.91,479.0,-33.62
33.68,481.64,-33.76
25.06,478.17,-33.48
16.75,479.54,-33.55
8.39,480.75,-33.62
0.0,476.84,-33.34
-8.27,473.77,-33.13
-16.29,466.58,-32.65
-23.91,456.26,-31.95
-31.87,455.77,-31.95
-39.73,454.15,-31.88
-47.03,447.44,-31.46
-54.22,441.6,-31.11
-61.64,438.61,-30.97
-68.82,434.51,-30.76
-76.22,432.26,-30.69
-83.37,428.91,-30.55
-90.43,425.43,-30.41
-97.84,423.79,-30.41
-104.26,418.15,-30.13
-110.76,413.37,-29.93
-117.69,410.42,-29.86
-124.54,407.35,-29.79
-131.32,404.16,-29.72
-137.38,398.98,-29.51
-144.66,397.46,-29.58
-151.22,393.94,-29.51
-158.07,391.24,-29.51
-165.27,389.34,-29.58
-176.5,396.42,-30.34
-181.28,388.76,-30.0
-186.73,382.85,-29.79
-195.65,383.98,-30.13
-220.11,413.97,-32.79
-227.79,410.94,-32.86
-236.42,409.5,-33.06
-233.77,389.06,-31.74
-238.41,381.54,-31.46
-230.36,354.73,-29.58
-230.94,342.39,-28.88
-239.74,342.39,-29.23
-262.69,361.56,-31.25
-278.56,369.66,-32.37
-284.36,363.96,-32.3
-291.29,359.72,-32.37
-303.3,361.46,-32.99
-312.83,359.87,-33.34
-321.74,357.32,-33.62
-326.56,350.19,-33.48
-333.32,345.16,-33.55
-339.29,339.29,-33.55
-359.51,347.18,-34.95
-377.19,351.73,-36.06
-384.75,346.43,-36.2
-391.49,340.32,-36.27
-397.37,333.44,-36.27
-404.68,327.71,-36.41
-409.55,319.98,-36.34
-414.28,312.18,-36.27
-418.05,303.73,-36.13
-426.56,298.68,-36.41
-431.7,291.19,-36.41
-436.72,283.61,-36.41
-441.6,275.94,-36.41
-446.35,268.19,-36.41
-452.69,261.36,-36.55
-458.93,254.39,-36.69
-465.06,247.28,-36.83
-470.19,239.58,-36.9
-475.2,231.77,-36.97
-480.98,224.29,-37.11
-486.64,216.67,-37.25
-492.19,208.92,-37.39
-498.53,201.42,-37.6
-506.63,194.48,-37.95
-513.7,186.97,-38.23
-520.65,179.28,-38.51
-530.35,172.32,-38.99
-539.95,165.08,-39.48
-548.5,157.28,-39.9
-552.13,147.94,-39.97
-554.63,138.28,-39.97
-565.7,130.6,-40.6
-579.6,123.2,-41.44
-586.56,114.02,-41.78
-589.45,103.94,-41.85
-597.08,94.57,-42.27
-603.58,84.83,-42.62
-610.91,75.01,-43.04
-617.09,64.86,-43.39
-628.06,54.95,-44.09
-636.89,44.54,-44.64
-638.56,33.47,-44.71
-646.03,22.56,-45.2
-646.32,11.28,-45.2
-650.11,0.0,-34.07
-644.02,11.24,-33.76
-645.72,22.55,-33.86
-644.23,33.76,-33.81
-644.54,45.07,-33.86
-648.63,56.75,-34.12
-649.53,68.27,-34.23
-647.24,79.47,-34.18
-646.75,90.89,-34.23
-643.09,101.86,-34.12
-634.33,111.85,-33.76
-627.38,121.95,-33.5
-620.27,131.84,-33.23
-611.07,141.08,-32.87
-607.54,151.48,-32.81
-597.09,159.99,-32.4
-587.49,168.46,-32.03
-575.86,176.06,-31.56
-567.0,184.23,-31.24
-553.31,190.52,-30.67
-544.27,198.1,-30.35
-538.87,206.85,-30.25
-531.47,214.73,-30.04
-523.05,222.02,-29.78
-513.62,228.68,-29.47
-508.65,237.19,-29.41
-497.25,242.52,-28.99
-492.94,251.17,-28.99
-487.6,259.26,-28.94
-481.26,266.76,-28.84
-472.2,272.63,-28.58
-464.8,279.28,-28.42
-459.01,286.82,-28.37
-452.26,293.7,-28.26
-442.93,298.76,-28.0
-436.83,305.87,-27.95
-430.62,312.86,-27.9
-424.29,319.73,-27.84
-417.07,325.85,-27.74
-411.32,333.08,-27.74
-403.15,338.28,-27.58
-397.19,345.27,-27.58
-391.84,352.82,-27.63
-384.9,358.92,-27.58
-380.01,366.97,-27.69
-372.84,372.84,-27.63
-365.58,378.57,-27.58
-358.24,384.16,-27.53
-348.81,387.39,-27.32
-333.48,383.62,-26.64
-315.82,376.38,-25.75
-301.03,371.74,-25.07
-295.73,378.51,-25.17
-290.88,386.01,-25.33
-282.34,388.6,-25.17
-270.93,386.93,-24.75
-259.67,384.97,-24.34
-250.73,386.1,-24.13
-232.84,372.63,-23.03
-222.19,369.79,-22.61
-211.21,365.83,-22.14
-200.92,362.47,-21.72
-197.38,371.21,-22.03
-194.5,381.72,-22.45
-205.75,421.85,-24.6
-200.05,429.0,-24.81
-187.65,421.48,-24.18
-176.76,416.42,-23.71
-169.46,419.44,-23.71
-154.96,403.69,-22.66
-148.23,407.27,-22.71
-141.1,409.79,-22.71
-131.77,405.54,-22.35
-123.5,403.96,-22.14
-116.16,405.1,-22.09
-109.33,408.03,-22.14
-102.43,410.84,-22.19
-95.47,413.54,-22.24
-88.45,416.12,-22.3
-81.36,418.58,-22.35
-74.39,421.9,-22.45
-67.49,426.1,-22.61
-60.32,429.19,-22.71
-53.06,432.16,-22.82
-45.83,436.0,-22.98
-38.21,436.73,-22.98
-30.65,438.33,-23.03
-23.36,445.78,-23.39
-15.58,446.12,-23.39
-7.93,454.31,-23.81
0.0,457.37,-23.97
7.98,457.3,-23.97
16.21,464.08,-24.34
24.72,471.7,-24.75
33.09,473.19,-24.86
41.95,479.51,-25.23
50.21,477.71,-25.17
58.54,476.76,-25.17
67.13,477.64,-25.28
75.61,477.39,-25.33
83.58,474.03,-25.23
91.08,468.57,-25.02
99.04,465.94,-24.96
108.28,469.0,-25.23
117.41,470.92,-25.44
126.13,470.73,-25.54
134.6,469.41,-25.59
143.65,469.86,-25.75
154.3,474.88,-26.17
163.86,475.89,-26.38
176.58,485.16,-27.06
185.74,483.86,-27.16
194.53,481.47,-27.21
204.07,480.76,-27.37
214.87,482.6,-27.69
224.52,481.49,-27.84
233.33,478.4,-27.9
243.01,476.92,-28.05
252.7,475.26,-28.21
261.44,471.65,-28.26
270.63,468.74,-28.37
279.8,465.66,-28.47
288.41,461.55,-28.52
299.14,460.64,-28.78
309.37,458.66,-28.99
318.47,454.82,-29.1
329.88,454.04,-29.41
339.56,450.61,-29.57
350.45,448.55,-29.83
361.36,446.25,-30.09
372.31,443.7,-30.35
383.92,441.65,-30.67
396.92,440.82,-31.09
407.28,436.75,-31.3
420.39,435.32,-31.72
427.92,427.92,-31.72
435.32,420.39,-31.72
450.63,420.22,-32.29
463.83,417.63,-32.71
474.06,412.1,-32.92
480.42,403.12,-32.87
484.27,392.16,-32.66
488.68,381.8,-32.5
492.88,371.41,-32.34
499.29,362.75,-32.34
511.27,357.99,-32.71
526.55,355.16,-33.29
539.36,350.27,-33.7
546.24,341.33,-33.76
582.07,349.75,-35.59
593.28,342.53,-35.9
604.41,335.03,-36.22
614.57,326.77,-36.48
629.08,320.53,-37.0
651.63,317.82,-38.0
681.51,317.8,-39.41
690.61,307.48,-39.62
706.9,300.06,-40.25
718.51,290.3,-40.61
759.83,291.67,-42.65
61498.36,22383.57,-3429.84
406.96,140.13,-22.56
353.31,114.8,-19.47
334.25,102.19,-18.32
335.02,96.07,-18.27
352.08,94.34,-19.1
374.02,93.25,-20.2
63767.83,14721.96,-3429.84
64015.05,13606.82,-3429.84
64242.77,12487.53,-3429.84
64450.93,11364.44,-3429.84
64639.45,10237.88,-3429.84
64808.28,9108.21,-3429.84
64957.37,7975.76,-3429.84
417.13,43.84,-21.98
407.88,35.68,-21.46
365.6,25.57,-19.21
365.0,19.13,-19.15
366.27,12.79,-19.21
367.44,6.41,-19.26
366.78,0.0,-12.81
349.73,6.1,-12.21
327.6,11.44,-11.45
326.35,17.1,-11.41
326.0,22.8,-11.41
346.46,30.31,-12.15
359.8,37.82,-12.63
360.07,44.21,-12.67
359.25,50.49,-12.67
358.31,56.75,-12.67
456.67,80.52,-16.19
64291.75,12497.05,-2287.14
64063.85,13617.19,-2287.14
63816.44,14733.19,-2287.14
63549.59,15844.69,-2287.14
63263.39,16951.37,-2287.14
62957.91,18052.89,-2287.14
62633.25,19148.91,-2287.14
62289.52,20239.09,-2287.14
385.54,132.75,-14.24
341.84,124.42,-12.7
332.15,127.5,-12.42
325.24,131.41,-12.25
351.42,149.17,-13.33
59832.73,26639.25,-2287.14
59358.7,27679.42,-2287.14
58866.59,28711.15,-2287.14
698.12,355.71,-27.36
683.87,363.62,-27.05
675.67,374.53,-26.98
666.43,384.77,-26.87
659.62,396.34,-26.87
630.56,394.02,-25.97
600.12,389.72,-24.99
585.77,395.11,-24.67
577.97,404.7,-24.64
551.41,400.63,-23.8
528.37,398.16,-23.1
514.26,401.78,-22.79
500.95,405.66,-22.51
489.2,410.49,-22.3
481.21,418.31,-22.27
470.87,423.97,-22.13
464.13,432.81,-22.16
455.06,439.45,-22.09
448.03,448.03,-22.13
440.84,456.5,-22.16
428.72,459.74,-21.95
417.28,463.44,-21.78
409.13,470.65,-21.78
396.36,472.36,-21.53
383.65,473.77,-21.29
374.09,478.82,-21.22
357.26,474.1,-20.73
344.82,474.6,-20.49
336.48,480.55,-20.49
319.1,473.09,-19.93
310.26,477.75,-19.89
300.28,480.55,-19.79
289.28,481.43,-19.61
279.33,483.81,-19.51
269.87,486.87,-19.44
261.34,491.5,-19.44
250.45,491.54,-19.26
239.2,490.44,-19.06
228.5,490.01,-18.88
219.5,493.01,-18.85
210.87,496.77,-18.85
201.04,497.59,-18.74
190.89,497.3,-18.6
182.19,500.55,-18.6
172.45,500.82,-18.5
162.75,500.9,-18.39
152.53,498.89,-18.22
141.87,494.75,-17.97
131.4,490.39,-17.73
121.85,488.73,-17.59
112.18,485.91,-17.41
102.65,482.91,-17.24
93.63,481.69,-17.14
84.34,478.33,-16.96
75.04,473.8,-16.75
66.35,472.07,-16.65
58.1,473.16,-16.65
50.35,479.07,-16.82
41.9,478.88,-16.79
33.67,481.53,-16.86
25.16,480.05,-16.79
16.78,480.41,-16.79
8.41,481.63,-16.82
0.0,471.71,-16.47
-8.18,468.64,-16.37
-16.32,467.43,-16.33
-24.16,461.09,-16.12
-32.07,458.6,-16.05
-39.98,456.97,-16.02
-47.11,448.26,-15.74
-54.44,443.4,-15.6
-61.62,438.42,-15.46
-69.1,436.29,-15.43
-76.36,433.05,-15.36
-83.52,429.69,-15.29
-90.8,427.19,-15.25
-98.24,425.54,-15.25
-104.69,419.88,-15.11
-110.97,414.13,-14.97
-117.63,410.21,-14.9
-124.47,407.14,-14.87
-131.87,405.85,-14.9
-138.61,402.55,-14.87
-144.93,398.19,-14.8
-151.5,394.66,-14.76
-158.36,391.96,-14.76
-166.35,391.9,-14.87
-178.04,399.89,-15.29
-182.46,391.29,-15.08
-187.51,384.45,-14.94
-194.64,382.01,-14.97
-213.48,401.5,-15.88
-227.24,409.95,-16.37
-236.36,409.38,-16.51
-236.77,394.06,-16.05
-239.38,383.08,-15.77
-230.79,355.38,-14.8
-231.92,343.84,-14.48
-240.76,343.83,-14.66
-263.75,363.03,-15.67
-277.87,368.74,-16.12
-284.88,364.63,-16.16
-292.46,361.15,-16.23
-303.21,361.35,-16.47
-309.47,356.01,-16.47
-320.32,355.75,-16.72
-327.16,350.84,-16.75
-333.23,345.07,-16.75
-342.74,342.74,-16.93
-363.76,351.28,-17.66
-377.88,352.38,-18.04
-385.46,347.07,-18.11
-392.21,340.94,-18.15
-398.87,334.69,-18.18
-403.87,327.05,-18.15
-410.3,320.56,-18.18
-415.84,313.35,-18.18
-418.82,304.29,-18.08
-424.88,297.5,-18.11
-432.49,291.72,-18.22
-438.36,284.67,-18.25
-444.11,277.51,-18.29
-448.88,269.72,-18.29
-454.39,262.34,-18.32
-460.64,255.34,-18.39
-465.91,247.73,-18.43
-471.06,240.01,-18.46
-476.07,232.2,-18.5
-483.67,225.54,-18.64
-487.54,217.07,-18.64
-491.25,208.52,-18.64
-507.79,205.16,-19.12
-514.09,197.34,-19.23
-518.39,188.68,-19.26
-521.61,179.6,-19.26
-531.32,172.64,-19.51
-538.07,164.5,-19.65
-546.62,156.74,-19.86
-555.07,148.73,-20.07
-558.55,139.26,-20.1
-572.58,132.19,-20.52
-578.71,123.01,-20.66
-585.67,113.84,-20.83
-590.52,104.13,-20.94
-598.17,94.74,-21.15
-608.64,85.54,-21.46
-613.02,75.27,-21.57
-614.24,64.56,-21.57
-621.25,54.35,-21.78
-640.05,44.76,-22.41
-643.72,33.74,-22.51
-647.21,22.6,-22.61
-648.51,11.32,-22.65
-649.9,0.0,-11.34
-649.8,11.34,-11.34
-645.51,22.54,-11.27
-645.02,33.8,-11.27
-645.33,45.13,-11.29
-649.42,56.82,-11.38
-651.31,68.46,-11.43
-649.03,79.69,-11.41
-648.53,91.14,-11.43
-643.87,101.98,-11.38
-635.1,111.99,-11.26
-629.13,122.29,-11.19
-622.01,132.21,-11.1
-616.68,142.37,-11.05
-610.22,152.15,-10.98
-602.65,161.48,-10.89
-593.01,170.04,-10.77
-579.43,177.15,-10.58
-567.69,184.46,-10.42
-565.33,194.66,-10.44
-556.21,202.45,-10.33
-543.26,208.54,-10.16
-538.61,217.61,-10.14
-532.89,226.2,-10.1
-519.73,231.4,-9.93
-511.99,238.74,-9.86
-504.15,245.89,-9.79
-495.32,252.38,-9.7
-491.73,261.46,-9.72
-484.47,268.54,-9.67
-476.24,274.96,-9.6
-469.66,282.2,-9.56
-464.66,290.35,-9.56
-454.49,295.15,-9.46
-445.13,300.24,-9.37
-439.0,307.39,-9.35
-433.57,315.0,-9.35
-425.61,320.72,-9.3
-419.16,327.48,-9.28
-414.16,335.38,-9.3
-405.94,340.63,-9.25
-399.18,347.0,-9.23
-393.06,353.92,-9.23
-387.56,361.4,-9.25
-380.47,367.42,-9.23
-375.42,375.42,-9.27
-366.72,379.75,-9.21
-360.04,386.1,-9.21
-347.23,385.63,-9.06
-325.36,374.28,-8.66
-308.49,367.65,-8.38
-300.14,370.64,-8.32
-294.24,376.61,-8.34
-290.03,384.88,-8.41
-283.86,390.7,-8.43
-276.42,394.77,-8.41
-259.43,384.61,-8.1
-252.13,388.25,-8.08
-245.32,392.59,-8.08
-226.07,376.24,-7.66
-208.47,361.08,-7.28
-200.68,362.04,-7.23
-199.5,375.2,-7.42
-195.64,383.97,-7.52
-196.8,403.5,-7.84
-200.71,430.43,-8.29
-188.29,422.91,-8.08
-177.76,418.77,-7.94
-165.93,410.68,-7.73
-154.43,402.31,-7.52
-150.81,414.34,-7.7
-141.93,412.18,-7.61
-131.31,404.14,-7.42
-123.65,404.46,-7.38
-116.85,407.51,-7.4
-109.98,410.46,-7.42
-103.04,413.28,-7.43
-95.81,415.02,-7.43
-88.76,417.61,-7.45
-81.65,420.07,-7.47
-74.48,422.42,-7.49
-67.41,425.63,-7.52
-60.53,430.7,-7.59
-53.25,433.68,-7.63
-45.88,436.53,-7.66
-38.26,437.26,-7.66
-31.04,443.85,-7.77
-23.44,447.32,-7.82
-15.63,447.66,-7.82
-7.89,451.86,-7.89
0.0,458.93,-8.01
8.03,459.86,-8.03
16.33,467.64,-8.17
24.65,470.28,-8.22
33.48,478.76,-8.38
42.0,480.09,-8.41
50.38,479.29,-8.41
58.73,478.33,-8.41
67.49,480.21,-8.46
75.7,477.97,-8.45
84.03,476.57,-8.45
91.38,470.13,-8.36
99.37,467.48,-8.34
107.96,467.63,-8.38
117.07,469.55,-8.45
126.54,472.27,-8.53
134.77,469.99,-8.53
143.82,470.43,-8.59
156.65,482.11,-8.85
166.34,483.09,-8.92
175.09,481.05,-8.94
185.61,483.52,-9.04
195.14,482.99,-9.09
205.1,483.19,-9.16
215.54,484.11,-9.25
225.64,483.89,-9.32
234.49,480.78,-9.34
243.76,478.4,-9.37
253.01,475.84,-9.41
262.24,473.1,-9.44
